  -1.56817   0.38551   1.95417
  -2.55890  -0.23651   1.58951
  -3.15242  -0.94384   0.34548
  -2.79330  -1.56586   0.34548
  -3.15242  -0.94384  -0.38384
  -2.79330  -1.56586  -0.38384
  -2.24310  -2.02753  -0.38384
  -0.17500  -2.02753  -0.38384
  -1.88398   0.93250  -1.62787
  -2.37806   0.43842  -1.62787
   1.67416   1.88228   0.40957
  -0.94414   2.34395   0.40957
   1.67416   1.88228  -0.31975
   0.44903  -0.06909  -1.92844
   2.28186   0.41864   1.39144
   2.91941  -0.26249   0.86999
   2.77266   0.42791   0.86999
   2.35779   0.99893   0.86999
   3.15222  -0.26249   0.23034
   3.02188   0.43479   0.23034
   2.64845   1.03789   0.23034
   2.08237   1.46537   0.23034
   3.02188  -0.95977   0.23034
   3.15222  -0.26249  -0.45036
   3.02188   0.43479  -0.45036
   2.64845   1.03789  -0.45036
   2.08237   1.46537  -0.45036
   0.69377  -2.11903  -0.45036
   1.40010  -2.18448  -0.45036
   2.08237  -1.99035  -0.45036
   2.64845  -1.56287  -0.45036
   3.02188  -0.95977  -0.45036
   2.91941  -0.26249  -1.09001
   2.77266   0.42791  -1.09001
   2.35779   0.99893  -1.09001
   0.37330  -1.73249  -1.09001
   1.04457  -1.95060  -1.09001
   1.74653  -1.87682  -1.09001
   2.35779  -1.52391  -1.09001
   2.77266  -0.95289  -1.09001
   2.48186  -0.26249  -1.61146
   2.28186   0.41864  -1.61146
   1.74537   0.88352  -1.61146
   0.39696  -1.21463  -1.61146
   1.04270  -1.50953  -1.61146
   1.74537  -1.40850  -1.61146
   2.28186  -0.94362  -1.61146
   1.89236  -0.26249  -1.95181
   1.55718   0.31806  -1.95181
   0.88682   0.31806  -1.95181
   0.88682  -0.84304  -1.95181
   1.55718  -0.84304  -1.95181
   1.22200  -0.26249  -2.07001
  -1.70292   1.05514   1.57570
  -2.43184   1.05514   1.57570
  -2.79630   0.42387   1.57570
  -1.52174   1.61865   1.10953
  -2.25431   1.72398   1.10953
  -2.92752   1.41653   1.10953
  -3.32765   0.79392   1.10953
  -3.32765   0.05382   1.10953
  -1.70292   2.02068   0.43591
  -2.43184   2.02068   0.43591
  -3.08858   1.70442   0.43591
  -3.54306   1.13452   0.43591
  -3.70526   0.42387   0.43591
  -3.54306  -0.28678   0.43591
  -1.70292   2.02068  -0.31177
  -2.43184   2.02068  -0.31177
  -3.08858   1.70442  -0.31177
  -3.54306   1.13452  -0.31177
  -3.70526   0.42387  -0.31177
  -3.54306  -0.28678  -0.31177
  -1.52174   1.61865  -0.98539
  -2.25431   1.72398  -0.98539
  -2.92752   1.41653  -0.98539
  -3.32765   0.79392  -0.98539
  -3.32765   0.05382  -0.98539
  -2.43184   1.05514  -1.45156
  -2.79630   0.42387  -1.45156
  -1.26769  -0.95774   2.47247
  -0.53877  -0.95774   2.30610
  -0.90323  -0.32647   2.30610
  -1.63215  -0.32647   2.30610
  -1.99661  -0.95774   2.30610
  -1.63215  -1.58901   2.30610
  -0.90323  -1.58901   2.30610
   0.04579  -0.95774   1.83993
  -2.52796  -0.58769   1.83993
  -2.52796  -1.32779   1.83993
  -2.12783  -1.95040   1.83993
  -1.45462  -2.25785   1.83993
  -0.72205  -2.15252   1.83993
  -0.16272  -1.66786   1.83993
  -2.90557  -0.95774   1.16631
  -2.74337  -1.66839   1.16631
  -2.28889  -2.23829   1.16631
  -1.63215  -2.55455   1.16631
  -0.90323  -2.55455   1.16631
  -0.24649  -2.23829   1.16631
  -2.28889  -2.23829   0.41863
  -1.63215  -2.55455   0.41863
  -0.90323  -2.55455   0.41863
  -0.24649  -2.23829   0.41863
  -1.64083  -2.37483  -0.58244
  -0.91191  -2.37483  -0.58244
  -2.91425  -0.77802  -1.33012
  -2.75205  -1.48867  -1.33012
  -2.29757  -2.05857  -1.33012
  -1.64083  -2.37483  -1.33012
  -0.91191  -2.37483  -1.33012
  -0.25517  -2.05857  -1.33012
   0.03711  -0.77802  -2.00374
  -0.17140  -0.06790  -2.00374
  -0.73073   0.41676  -2.00374
  -1.46330   0.52209  -2.00374
  -2.13651   0.21464  -2.00374
  -2.53664  -0.40797  -2.00374
  -2.53664  -1.14807  -2.00374
  -2.13651  -1.77068  -2.00374
  -1.46330  -2.07813  -2.00374
  -0.73073  -1.97280  -2.00374
  -0.17140  -1.48814  -2.00374
  -0.54745  -0.77802  -2.46991
  -0.91191  -0.14675  -2.46991
  -1.64083  -0.14675  -2.46991
  -2.00529  -0.77802  -2.46991
  -1.64083  -1.40929  -2.46991
  -0.91191  -1.40929  -2.46991
  -1.27637  -0.77802  -2.63628
   0.14555   1.11298   2.65665
   0.87447   1.11298   2.49028
   0.51001   1.74425   2.49028
  -0.21891   1.74425   2.49028
  -0.58337   1.11298   2.49028
  -0.21891   0.48171   2.49028
   0.51001   0.48171   2.49028
   1.45903   1.11298   2.02411
   1.25052   1.82310   2.02411
   0.69119   2.30776   2.02411
  -0.04138   2.41309   2.02411
  -0.71459   2.10564   2.02411
  -1.11472   1.48303   2.02411
  -1.11472   0.74293   2.02411
  -0.71459   0.12032   2.02411
  -0.04138  -0.18713   2.02411
   0.69119  -0.08180   2.02411
   1.25052   0.40286   2.02411
   1.78343   1.11298   1.35049
   1.62123   1.82363   1.35049
   1.16675   2.39353   1.35049
   0.51001   2.70979   1.35049
  -0.21891   2.70979   1.35049
  -0.87565   2.39353   1.35049
   1.16675   2.39353   0.60281
   0.51001   2.70979   0.60281
  -0.21891   2.70979   0.60281
   1.15268   2.55098  -0.39019
   0.49594   2.86724  -0.39019
  -0.23298   2.86724  -0.39019
  -0.88972   2.55098  -0.39019
   1.60716   1.98108  -1.13787
   1.15268   2.55098  -1.13787
   0.49594   2.86724  -1.13787
  -0.23298   2.86724  -1.13787
  -0.88972   2.55098  -1.13787
  -1.34420   1.98108  -1.13787
   1.44496   1.27043  -1.81149
   1.23645   1.98055  -1.81149
   0.67712   2.46521  -1.81149
  -0.05545   2.57054  -1.81149
  -0.72866   2.26309  -1.81149
  -1.12879   1.64048  -1.81149
  -1.12879   0.90038  -1.81149
   0.86040   1.27043  -2.27766
   0.49594   1.90170  -2.27766
  -0.23298   1.90170  -2.27766
  -0.59744   1.27043  -2.27766
  -0.23298   0.63916  -2.27766
   0.49594   0.63916  -2.27766
   0.13148   1.27043  -2.44403
   1.27318  -0.87009   2.29476
   2.00210  -0.87009   2.12839
   1.63764  -0.23882   2.12839
   0.54426  -0.87009   2.12839
   0.90872  -1.50136   2.12839
   1.63764  -1.50136   2.12839
   2.58666  -0.87009   1.66222
   2.37815  -0.15997   1.66222
   1.81882   0.32469   1.66222
   0.41304  -1.86275   1.66222
   1.08625  -2.17020   1.66222
   1.81882  -2.06487   1.66222
   2.37815  -1.58021   1.66222
   2.91106  -0.87009   0.98860
   0.25198  -2.15064   0.98860
   0.90872  -2.46690   0.98860
   1.63764  -2.46690   0.98860
   2.29438  -2.15064   0.98860
   2.74886  -1.58074   0.98860
   0.25198  -2.15064   0.24092
   0.90872  -2.46690   0.24092
   1.63764  -2.46690   0.24092
   2.29438  -2.15064   0.24092
   2.74886  -1.58074   0.24092
  -1.76672   0.72940   2.10591
  -2.17496   0.32116   2.10591
  -3.16215  -0.53089   1.34418
  -3.37663  -0.81731   0.83187
  -3.15244  -1.35853   0.83187
  -2.72771  -2.07226  -0.30847
  -0.47282  -2.50240  -0.30847
  -3.37663  -0.81731  -0.87023
  -3.15244  -1.35853  -0.87023
  -1.64856   1.68913  -1.38254
  -1.64458   1.29423  -1.81561
   0.08991  -0.56241   2.17000
   2.03330   1.67495   0.89596
  -1.49687   2.13971   0.89596
   0.82614   2.81882   0.33420
   0.23951   2.93073   0.33420
  -1.42875   2.38868   0.33420
  -1.42875   2.38868  -0.24438
   2.69896   0.30969   1.47391
   2.39253   0.80459   1.47391
   2.82482   0.83029   1.00999
   3.31195   0.29751   0.46974
   3.09580   0.81935   0.46974
   3.31195  -0.82249   0.46974
   3.46200  -0.26249  -0.11001
   3.39163   0.29458  -0.11001
   3.18493   0.81664  -0.11001
   2.85489   1.27090  -0.11001
   2.42225   1.62880  -0.11001
   2.85489  -1.79588  -0.11001
   3.18493  -1.34162  -0.11001
   3.39163  -0.81956  -0.11001
   3.31195   0.29751  -0.68976
   3.09580   0.81935  -0.68976
   0.14016  -2.13629  -0.68976
   1.78200  -2.35244  -0.68976
   3.09580  -1.34433  -0.68976
   3.31195  -0.82249  -0.68976
   2.82482   0.83029  -1.23001
   1.36697  -2.19696  -1.23001
   2.82482  -1.35527  -1.23001
   2.69896   0.30969  -1.69393
   2.39253   0.80459  -1.69393
   1.36815  -1.83965  -1.69393
   2.39253  -1.32957  -1.69393
   2.69896  -0.83467  -1.69393
   2.34200  -0.26249  -2.04991
   2.19195   0.29751  -2.04991
   1.78200   0.70746  -2.04991
   0.66200  -1.23244  -2.04991
   1.22200  -1.38249  -2.04991
   1.78200  -1.23244  -2.04991
   2.19195  -0.82249  -2.04991
   0.64225  -0.26249  -2.27368
  -2.06738   1.55242   1.61538
  -2.63165   1.40122   1.61538
  -3.04473   0.98814   1.61538
  -3.19593   0.42387   1.61538
  -3.04473  -0.14040   1.61538
  -2.66181   1.85894   1.19062
  -3.62069   0.42387   1.19062
  -2.80089   2.09610   0.65538
  -3.86850   0.72442   0.65538
  -3.86850   0.12332   0.65538
  -1.92390   2.33850   0.06207
  -2.49462   2.29573   0.06207
  -3.02738   2.08664   0.06207
  -3.47484   1.72980   0.06207
  -3.79724   1.25693   0.06207
  -3.96594   0.71003   0.06207
  -3.96594   0.13771   0.06207
  -3.79724  -0.40919   0.06207
  -2.80089   2.09610  -0.53124
  -3.86850   0.72442  -0.53124
  -3.86850   0.12332  -0.53124
  -2.66181   1.85894  -1.06648
  -3.62069   0.42387  -1.06648
  -2.06738   1.55242  -1.49124
  -2.63165   1.40122  -1.49124
  -3.04473   0.98814  -1.49124
  -3.19593   0.42387  -1.49124
  -0.13914  -0.95774   2.34578
  -0.29034  -0.39347   2.34578
  -1.26769   0.17081   2.34578
  -1.83196   0.01961   2.34578
  -2.24504  -0.39347   2.34578
  -2.39624  -0.95774   2.34578
  -2.24504  -1.52201   2.34578
  -1.83196  -1.93509   2.34578
  -1.26769  -2.08629   2.34578
  -0.70342  -1.93509   2.34578
  -0.29034  -1.52201   2.34578
  -2.82100  -0.95774   1.92102
  -1.86212  -2.39281   1.92102
  -3.06881  -1.25829   1.38578
  -2.00120  -2.62997   1.38578
  -2.99755  -1.79080   0.79247
  -2.67515  -2.26367   0.79247
  -2.22769  -2.62051   0.79247
  -1.69493  -2.82960   0.79247
  -1.12421  -2.87237   0.79247
  -0.56624  -2.74502   0.79247
  -0.07059  -2.45886   0.79247
  -2.00120  -2.62997   0.19916
  -2.68383  -2.08395  -0.95628
  -2.23637  -2.44079  -0.95628
  -1.70361  -2.64988  -0.95628
  -1.13289  -2.69265  -0.95628
  -0.57492  -2.56530  -0.95628
  -3.07749  -0.47747  -1.54959
  -3.07749  -1.07857  -1.54959
  -2.00988  -2.45025  -1.54959
   0.16462  -1.89959  -1.54959
  -2.82968  -0.77802  -2.08483
  -1.87080  -2.21309  -2.08483
  -0.14782  -0.77802  -2.50959
  -0.29902  -0.21375  -2.50959
  -0.71210   0.19933  -2.50959
  -1.27637   0.35053  -2.50959
  -1.84064   0.19933  -2.50959
  -2.25372  -0.21375  -2.50959
  -2.40492  -0.77802  -2.50959
  -2.25372  -1.34229  -2.50959
  -1.84064  -1.75537  -2.50959
  -1.27637  -1.90657  -2.50959
  -0.71210  -1.75537  -2.50959
  -0.29902  -1.34229  -2.50959
   1.27410   1.11298   2.52996
   1.12290   1.67725   2.52996
   0.70982   2.09033   2.52996
   0.14555   2.24153   2.52996
  -0.41872   2.09033   2.52996
  -0.83180   1.67725   2.52996
  -0.98300   1.11298   2.52996
  -0.83180   0.54871   2.52996
  -0.41872   0.13563   2.52996
   0.14555  -0.01557   2.52996
   0.70982   0.13563   2.52996
   1.12290   0.54871   2.52996
  -0.44888   2.54805   2.10520
  -1.40776   1.11298   2.10520
   1.58654   2.23455   1.56996
  -0.58796   2.78521   1.56996
  -1.46039   1.98207   1.56996
   1.73193   2.19455   0.97665
   1.34265   2.61410   0.97665
   0.84700   2.90026   0.97665
   0.28903   3.02761   0.97665
  -0.28169   2.98484   0.97665
  -0.81445   2.77575   0.97665
  -0.60203   2.94266  -0.17072
   1.96618   1.83636  -0.76403
   1.71786   2.35200  -0.76403
   1.32858   2.77155  -0.76403
   0.83293   3.05771  -0.76403
   0.27496   3.18506  -0.76403
  -0.29576   3.14229  -0.76403
  -0.82852   2.93320  -0.76403
  -1.27598   2.57636  -0.76403
  -1.59838   2.10349  -0.76403
   1.57247   2.39200  -1.35734
  -0.60203   2.94266  -1.35734
  -0.46295   2.70550  -1.89258
   1.26003   1.27043  -2.31734
   1.10883   1.83470  -2.31734
   0.69575   2.24778  -2.31734
   0.13148   2.39898  -2.31734
  -0.43279   2.24778  -2.31734
  -0.84587   1.83470  -2.31734
  -0.99707   1.27043  -2.31734
  -0.84587   0.70616  -2.31734
   0.69575   0.29308  -2.31734
   1.10883   0.70616  -2.31734
   0.97652  -0.35627   2.44079
   2.40173  -0.87009   2.16807
   2.25053  -0.30582   2.16807
   1.83745   0.10726   2.16807
   0.29583  -1.43436   2.16807
   0.70891  -1.84744   2.16807
   1.27318  -1.99864   2.16807
   1.83745  -1.84744   2.16807
   2.25053  -1.43436   2.16807
   0.67875  -2.30516   1.74331
   0.53967  -2.54232   1.20807
   2.71417  -1.99166   1.20807
   0.31318  -2.53286   0.61476
   0.84594  -2.74195   0.61476
   1.41666  -2.78472   0.61476
   1.97463  -2.65737   0.61476
   2.47028  -2.37121   0.61476
   2.85956  -1.95166   0.61476
   3.10788  -1.43602   0.61476
   0.53967  -2.54232   0.02145
  -2.05076   1.22138   2.09177
  -2.89247  -0.23651   2.09177
  -3.77536  -0.82225   0.58163
  -3.58068  -1.37862   0.58163
  -3.76771  -1.09862  -0.01918
  -3.52256  -1.62851  -0.01918
  -3.16924  -2.09330  -0.01918
  -2.72426  -2.47127  -0.01918
  -0.48672  -2.83809  -0.01918
   0.05565  -2.62199  -0.01918
  -3.77536  -0.82225  -0.61999
  -3.58068  -1.37862  -0.61999
  -3.26707  -1.87773  -0.61999
  -2.85027  -2.29453  -0.61999
  -0.06694  -2.60814  -0.61999
  -2.05076   1.22138  -2.13013
  -2.49863   0.84557  -2.13013
  -2.79095   0.33925  -2.13013
  -1.20905   0.93498  -2.45180
  -1.79479   0.77803  -2.45180
   2.14793   2.19415   0.64572
   1.73113   2.61095   0.64572
  -1.05220   2.92456   0.64572
  -1.55131   2.61095   0.64572
   2.23936   2.18690   0.04491
   1.83785   2.61077   0.04491
   1.35461   2.93841   0.04491
   0.81224   3.15451   0.04491
  -0.34690   3.21736   0.04491
  -1.42530   2.78769   0.04491
   2.14793   2.19415  -0.55590
   0.39031   0.03262  -2.58740
   3.29592  -0.26249   1.32151
   3.21191   0.32180   1.32151
   2.58013   1.30487   1.32151
   3.57824  -0.26249   0.78359
   2.93963   1.35047   0.78359
   2.48454   1.72695   0.78359
   3.72363  -0.26249   0.19374
   3.65093   0.33619   0.19374
   3.43708   0.90007   0.19374
   3.09449   1.39640   0.19374
   2.64309   1.79631   0.19374
   3.43708  -1.42505   0.19374
   3.65093  -0.86117   0.19374
   3.72363  -0.26249  -0.41376
   3.65093   0.33619  -0.41376
   3.43708   0.90007  -0.41376
   3.09449   1.39640  -0.41376
   2.64309   1.79631  -0.41376
   0.33491  -2.60155  -0.41376
   0.92046  -2.74588  -0.41376
   2.10909  -2.60155  -0.41376
   2.64309  -2.32129  -0.41376
   3.09449  -1.92138  -0.41376
   3.43708  -1.42505  -0.41376
   3.65093  -0.86117  -0.41376
   3.57824  -0.26249  -1.00361
   2.93963   1.35047  -1.00361
   2.48454   1.72695  -1.00361
   0.21876  -2.39448  -1.00361
   0.78048  -2.57700  -1.00361
   1.36995  -2.61408  -1.00361
   2.48454  -2.25193  -1.00361
   2.93963  -1.87545  -1.00361
   3.29592  -0.26249  -1.54153
   3.21191   0.32180  -1.54153
   2.58013   1.30487  -1.54153
   0.92685  -2.31530  -1.54153
   2.08354  -2.14899  -1.54153
   2.58013  -1.82985  -1.54153
   3.21191  -0.84678  -1.54153
   2.89307  -0.26249  -1.99626
   1.96686   1.23339  -1.99626
   0.76469  -1.86977  -1.99626
   1.96686  -1.75837  -1.99626
   1.82508  -0.26249  -2.55678
   1.52354   0.25979  -2.55678
   0.92046  -0.78477  -2.55678
   1.52354  -0.78477  -2.55678
   1.22200  -0.26249  -2.63001
  -2.37165   0.95088   2.13457
  -1.91676   2.04933   1.47657
  -3.05113   1.72657   1.47657
  -3.45529   1.28323   1.47657
  -3.67200   0.72383   1.47657
  -3.67200   0.12391   1.47657
  -2.06738   2.38868   0.95937
  -3.22226   2.01343   0.95937
  -3.65694   1.57875   0.95937
  -3.93602   1.03103   0.95937
  -4.03219   0.42387   0.95937
  -3.93602  -0.18329   0.95937
  -2.37165   2.54012   0.36947
  -2.95554   2.36868   0.36947
  -3.46748   2.03967   0.36947
  -3.86599   1.57977   0.36947
  -4.11879   1.02622   0.36947
  -4.20539   0.42387   0.36947
  -4.11879  -0.17848   0.36947
  -2.37165   2.54012  -0.24533
  -2.95554   2.36868  -0.24533
  -3.46748   2.03967  -0.24533
  -3.86599   1.57977  -0.24533
  -4.11879   1.02622  -0.24533
  -4.20539   0.42387  -0.24533
  -4.11879  -0.17848  -0.24533
  -2.06738   2.38868  -0.83523
  -3.22226   2.01343  -0.83523
  -3.65694   1.57875  -0.83523
  -3.93602   1.03103  -0.83523
  -4.03219   0.42387  -0.83523
  -3.93602  -0.18329  -0.83523
  -1.91676   2.04933  -1.35243
  -3.05113   1.72657  -1.35243
  -3.45529   1.28323  -1.35243
  -3.67200   0.72383  -1.35243
  -3.67200   0.12391  -1.35243
  -1.26769  -0.95774   2.95247
  -0.65915  -0.95774   2.86497
  -0.96342  -0.43073   2.86497
  -1.57196  -0.43073   2.86497
  -1.87623  -0.95774   2.86497
  -1.57196  -1.48475   2.86497
  -0.96342  -1.48475   2.86497
  -2.87231  -0.65778   2.20697
  -2.87231  -1.25770   2.20697
  -2.65560  -1.81710   2.20697
  -2.25144  -2.26044   2.20697
  -1.11707  -2.58320   2.20697
  -0.54006  -2.41902   2.20697
  -0.06132  -2.05749   2.20697
  -3.23250  -0.95774   1.68977
  -3.13633  -1.56490   1.68977
  -2.85725  -2.11262   1.68977
  -2.42257  -2.54730   1.68977
  -1.26769  -2.92255   1.68977
  -0.66053  -2.82638   1.68977
  -0.11281  -2.54730   1.68977
  -3.06630  -2.11364   1.09987
  -2.66779  -2.57354   1.09987
  -2.15585  -2.90255   1.09987
  -1.57196  -3.07399   1.09987
  -0.96342  -3.07399   1.09987
  -2.66779  -2.57354   0.48507
  -2.15585  -2.90255   0.48507
  -1.57196  -3.07399   0.48507
  -0.96342  -3.07399   0.48507
  -2.16453  -2.72283  -0.64888
  -1.58064  -2.89427  -0.64888
  -0.97210  -2.89427  -0.64888
  -3.32778  -1.38037  -1.26368
  -3.07498  -1.93392  -1.26368
  -2.67647  -2.39382  -1.26368
  -2.16453  -2.72283  -1.26368
  -1.58064  -2.89427  -1.26368
  -0.97210  -2.89427  -1.26368
  -3.24118  -0.77802  -1.85358
  -3.14501  -1.38518  -1.85358
  -2.86593  -1.93290  -1.85358
  -2.43125  -2.36758  -1.85358
  -1.27637  -2.74283  -1.85358
  -0.66921  -2.64666  -1.85358
  -0.12149  -2.36758  -1.85358
  -2.88099  -0.47806  -2.37078
  -2.88099  -1.07798  -2.37078
  -2.66428  -1.63738  -2.37078
  -2.26012  -2.08072  -2.37078
  -1.12575  -2.40348  -2.37078
  -0.54874  -2.23930  -2.37078
  -0.07000  -1.87777  -2.37078
   0.24582  -1.36772  -2.37078
  -0.66783  -0.77802  -3.02878
  -0.97210  -0.25101  -3.02878
  -1.58064  -0.25101  -3.02878
  -1.88491  -0.77802  -3.02878
  -1.58064  -1.30503  -3.02878
  -0.97210  -1.30503  -3.02878
  -1.27637  -0.77802  -3.11628
   0.14555   1.11298   3.13665
   0.75409   1.11298   3.04915
   0.44982   1.63999   3.04915
  -0.15872   1.63999   3.04915
  -0.46299   1.11298   3.04915
  -0.15872   0.58597   3.04915
   0.44982   0.58597   3.04915
   1.77797   1.11298   2.39115
   1.66774   1.70268   2.39115
   1.35192   2.21273   2.39115
   0.87318   2.57426   2.39115
   0.29617   2.73844   2.39115
  -0.83820   2.41568   2.39115
  -1.24236   1.97234   2.39115
  -1.45907   1.41294   2.39115
   1.66774   0.52328   2.39115
   2.11036   1.11298   1.87395
   2.01419   1.72014   1.87395
   1.30043   2.70254   1.87395
   0.75271   2.98162   1.87395
   0.14555   3.07779   1.87395
  -1.00933   2.70254   1.87395
  -1.44401   2.26786   1.87395
  -1.72309   1.72014   1.87395
   2.19696   1.71533   1.28405
   0.44982   3.22923   1.28405
  -0.15872   3.22923   1.28405
  -0.74261   3.05779   1.28405
  -1.25455   2.72878   1.28405
   0.44982   3.22923   0.66925
  -0.15872   3.22923   0.66925
   0.43575   3.38668  -0.45663
  -0.17279   3.38668  -0.45663
  -0.75668   3.21524  -0.45663
  -1.26862   2.88623  -0.45663
   0.43575   3.38668  -1.07143
  -0.17279   3.38668  -1.07143
  -0.75668   3.21524  -1.07143
  -1.26862   2.88623  -1.07143
  -1.66713   2.42633  -1.07143
   2.00012   1.87759  -1.66133
   1.28636   2.85999  -1.66133
   0.73864   3.13907  -1.66133
   0.13148   3.23524  -1.66133
  -1.02340   2.85999  -1.66133
  -1.45808   2.42531  -1.66133
   1.65367   1.86013  -2.17853
   1.33785   2.37018  -2.17853
   0.85911   2.73171  -2.17853
   0.28210   2.89589  -2.17853
  -0.85227   2.57313  -2.17853
  -1.25643   2.12979  -2.17853
  -1.47314   1.57039  -2.17853
   0.74002   1.27043  -2.83653
   0.43575   1.79744  -2.83653
  -0.17279   1.79744  -2.83653
  -0.47706   1.27043  -2.83653
  -0.17279   0.74342  -2.83653
   0.43575   0.74342  -2.83653
   0.13148   1.27043  -2.92403
   1.27318  -0.87009   2.77476
   1.88172  -0.87009   2.68726
   1.57745  -0.34308   2.68726
   0.66464  -0.87009   2.68726
   0.96891  -1.39710   2.68726
   1.57745  -1.39710   2.68726
   2.90560  -0.87009   2.02926
   2.79537  -0.28039   2.02926
   2.47955   0.22966   2.02926
   0.28943  -2.17279   2.02926
   1.42380  -2.49555   2.02926
   2.00081  -2.33137   2.02926
   2.47955  -1.96984   2.02926
   2.79537  -1.45979   2.02926
   3.23799  -0.87009   1.51206
   1.27318  -2.83490   1.51206
   1.88034  -2.73873   1.51206
   2.42806  -2.45965   1.51206
   3.14182  -1.47725   1.51206
   0.38502  -2.81490   0.92216
   0.96891  -2.98634   0.92216
   1.57745  -2.98634   0.92216
   0.38502  -2.81490   0.30736
   0.96891  -2.98634   0.30736
   1.57745  -2.98634   0.30736
  -1.50169   0.27035   2.92318
  -1.78308   0.75773   2.75246
  -2.20329   0.33752   2.75246
  -2.21347   1.09355   2.47523
  -2.62612   0.64090   2.47523
  -2.84738   0.06975   2.47523
  -2.09028   1.69311   2.10214
  -3.33037  -0.23651   2.10214
  -3.63098  -0.83346   1.64753
  -3.83560  -1.12150   1.12887
  -3.58395  -1.66544   1.12887
  -3.44159  -2.15308   0.56609
  -4.15141  -0.82178  -0.01918
  -2.35710  -3.00815  -0.01918
  -1.79432  -3.17887  -0.01918
  -1.20905  -3.23651  -0.01918
  -0.06100  -3.00815  -0.01918
  -1.94656  -3.08494  -0.60445
  -0.18715  -2.99571  -0.60445
  -3.96444  -0.53618  -1.16723
  -3.83560  -1.12150  -1.16723
  -3.70346  -0.23651  -1.68589
  -3.63098  -0.83346  -1.68589
  -2.09028   1.69311  -2.14050
  -2.59822   1.36668  -2.14050
  -2.99362   0.91036  -2.14050
  -3.24444   0.36114  -2.14050
  -3.33037  -0.23651  -2.14050
  -1.66517   1.36658  -2.51359
  -2.21347   1.09355  -2.51359
  -2.62612   0.64090  -2.51359
   0.08991  -0.59512   2.81655
   2.29639   2.23025   1.19296
   1.64631   3.04994   0.63018
   1.11181   3.31213   0.63018
  -0.64760   3.40136   0.63018
   1.75662   3.04734   0.04491
   1.23796   3.32457   0.04491
   0.08991   3.55293   0.04491
  -1.05814   3.32457   0.04491
   2.11710   2.68553  -0.54036
  -1.71112   2.87967  -0.54036
   2.43826   0.84628   2.15524
   3.30281  -0.26249   1.76356
   3.21852   0.32374   1.76356
   2.97248   0.86248   1.76356
   2.58464   1.31008   1.76356
   3.34693   0.90570   1.28999
   2.98965   1.39745   1.28999
   3.81819   0.33007   0.75524
   3.62124   0.89292   0.75524
   2.88233   1.81949   0.75524
   3.62124  -1.41790   0.75524
   3.81819  -0.85505   0.75524
   3.43885  -1.94770   0.18267
   1.37276  -3.04307  -0.40269
   2.52636  -2.72277  -0.40269
   3.81819   0.33007  -0.97526
   3.62124   0.89292  -0.97526
   2.88233   1.81949  -0.97526
   1.81456  -2.85868  -0.97526
   2.37741  -2.66173  -0.97526
   2.88233  -2.34447  -0.97526
   3.62124  -1.41790  -0.97526
   3.81819  -0.85505  -0.97526
   3.34693   0.90570  -1.51001
   2.98965   1.39745  -1.51001
   2.52131   1.78490  -1.51001
   1.37426  -2.68258  -1.51001
   1.97133  -2.56868  -1.51001
   2.52131  -2.30988  -1.51001
   2.98965  -1.92243  -1.51001
   3.34693  -1.43068  -1.51001
   3.30281  -0.26249  -1.98358
   3.21852   0.32374  -1.98358
   2.97248   0.86248  -1.98358
   2.58464   1.31008  -1.98358
   0.92587  -2.32212  -1.98358
   1.51813  -2.32212  -1.98358
   2.08640  -2.15526  -1.98358
   2.58464  -1.83506  -1.98358
   2.97248  -1.38746  -1.98358
   3.21852  -0.84872  -1.98358
   2.75666   0.33204  -2.37526
   2.43826   0.84628  -2.37526
   1.37386  -1.90127  -2.37526
   2.43826  -1.37126  -2.37526
   2.75666  -0.85702  -2.37526
   2.36086  -0.26249  -2.66794
   2.20828   0.30694  -2.66794
   1.79143   0.72379  -2.66794
   0.65257  -1.24877  -2.66794
   1.22200  -1.40135  -2.66794
   1.79143  -1.24877  -2.66794
   2.20828  -0.83192  -2.66794
   0.93092   0.24167  -2.84882
   0.63985  -0.26249  -2.84882
  -2.62505   1.38978   2.18716
  -3.03329   0.98154   2.18716
  -3.18272   0.42387   2.18716
  -2.50291   1.95461   1.85850
  -2.50689   2.34951   1.42543
  -3.05496   2.13441   1.42543
  -3.51528   1.76732   1.42543
  -3.84694  -0.43312   1.42543
  -2.64818   2.59145   0.91312
  -3.65416   2.01065   0.91312
  -1.91778   2.80167   0.35136
  -2.64818   2.59145  -0.78898
  -3.65416   2.01065  -0.78898
  -2.50689   2.34951  -1.30129
  -3.05496   2.13441  -1.30129
  -3.51528   1.76732  -1.30129
  -2.50291   1.95461  -1.73436
  -0.15235  -0.95774   2.91756
  -0.30178  -0.40007   2.91756
  -1.82536   0.00817   2.91756
  -2.23360  -0.40007   2.91756
  -2.38303  -0.95774   2.91756
  -2.23360  -1.51541   2.91756
  -1.82536  -1.92365   2.91756
  -1.26769  -2.07308   2.91756
  -0.71002  -1.92365   2.91756
  -0.30178  -1.51541   2.91756
  -1.70322  -2.48848   2.58890
  -2.71559  -2.30119   2.15583
  -2.25527  -2.66828   2.15583
  -1.70720  -2.88338   2.15583
  -0.03620  -2.50198   2.15583
  -2.85447  -2.54452   1.64352
  -1.84849  -3.12532   1.64352
  -0.53146  -3.22363   1.08176
   0.00892  -2.96935   1.08176
  -0.53146  -3.22363   0.50318
   0.00892  -2.96935   0.50318
  -0.54014  -3.04391  -1.24557
   0.00024  -2.78963  -1.24557
  -2.86315  -2.36480  -1.80733
  -1.85717  -2.94560  -1.80733
   0.31041  -2.36480  -1.80733
  -2.72427  -2.12147  -2.31964
  -2.26395  -2.48856  -2.31964
  -1.71588  -2.70366  -2.31964
  -0.04488  -2.32226  -2.31964
   0.35558  -1.89067  -2.31964
   0.31512  -0.77802  -2.75271
  -2.23546   0.49202  -2.75271
  -2.62949   0.05979  -2.75271
  -1.71190  -2.30876  -2.75271
  -0.16103  -0.77802  -3.08137
  -0.31046  -0.22035  -3.08137
  -0.71870   0.18789  -3.08137
  -1.27637   0.33732  -3.08137
  -1.83404   0.18789  -3.08137
  -2.24228  -0.22035  -3.08137
  -2.39171  -0.77802  -3.08137
  -2.24228  -1.33569  -3.08137
  -1.83404  -1.74393  -3.08137
  -1.27637  -1.89336  -3.08137
  -0.71870  -1.74393  -3.08137
  -0.31046  -1.33569  -3.08137
   1.26089   1.11298   3.10174
   1.11146   1.67065   3.10174
   0.70322   2.07889   3.10174
   0.14555   2.22832   3.10174
  -0.41212   2.07889   3.10174
  -0.82036   1.67065   3.10174
  -0.96979   1.11298   3.10174
  -0.82036   0.55531   3.10174
  -0.41212   0.14707   3.10174
   0.14555  -0.00236   3.10174
   0.70322   0.14707   3.10174
   1.11146   0.55531   3.10174
  -0.28998   2.64372   2.77308
   1.77750   2.22563   2.34001
   1.37704   2.65722   2.34001
  -0.29396   3.03862   2.34001
  -0.84203   2.82352   2.34001
  -1.30235   2.45643   2.34001
   2.08894   2.23500   1.82770
   1.73233   2.69976   1.82770
  -0.43525   3.28056   1.82770
  -1.44123   2.69976   1.82770
   1.88232   2.74391   1.26594
   1.42216   3.12459   1.26594
   0.88178   3.37887   1.26594
   1.40809   3.28204  -0.47474
   0.86771   3.53632  -0.47474
   2.21928   2.41821  -1.05332
   1.86825   2.90136  -1.05332
   1.40809   3.28204  -1.05332
   0.86771   3.53632  -1.05332
   2.07487   2.39245  -1.61508
   1.71826   2.85721  -1.61508
  -0.44932   3.43801  -1.61508
  -1.45530   2.85721  -1.61508
   1.76343   2.38308  -2.12739
   1.36297   2.81467  -2.12739
  -0.30803   3.19607  -2.12739
  -0.85610   2.98097  -2.12739
  -1.31642   2.61388  -2.12739
   1.72297   1.27043  -2.56046
  -0.30405   2.80117  -2.56046
   1.24682   1.27043  -2.88912
   1.09739   1.82810  -2.88912
   0.68915   2.23634  -2.88912
   0.13148   2.38577  -2.88912
  -0.42619   2.23634  -2.88912
  -0.83443   1.82810  -2.88912
  -0.98386   1.27043  -2.88912
  -0.83443   0.71276  -2.88912
   1.09739   0.71276  -2.88912
   0.98600  -0.37268   2.94502
   2.38852  -0.87009   2.73985
   2.23909  -0.31242   2.73985
   1.83085   0.09582   2.73985
   0.30727  -1.42776   2.73985
   0.71551  -1.83600   2.73985
   1.27318  -1.98543   2.73985
   1.83085  -1.83600   2.73985
   2.23909  -1.42776   2.73985
   0.83765  -2.40083   2.41119
   0.83367  -2.79573   1.97812
   2.50467  -2.41433   1.97812
   2.90513  -1.98274   1.97812
   0.15116  -2.81348   1.46581
   0.69238  -3.03767   1.46581
   2.85996  -2.45687   1.46581
   3.21657  -1.99211   1.46581
   2.00941  -3.13598   0.90405
   2.54979  -2.88170   0.90405
   3.00995  -2.50102   0.90405
   3.36098  -2.01787   0.90405
   2.00941  -3.13598   0.32547
   2.54979  -2.88170   0.32547
   3.00995  -2.50102   0.32547
   0.69238  -3.03767  -0.23629
   1.85398  -3.03767  -0.23629
  -3.44798  -0.89392   2.31427
  -3.95290  -0.23651   1.81420
  -3.63861  -1.51164   1.81420
  -4.23998  -0.56614   1.24368
  -4.29721  -1.20543   0.62462
  -4.03895  -1.80723   0.62462
  -3.19019  -2.79593   0.62462
  -4.25785  -1.49937  -0.01918
  -3.95290  -2.06989  -0.01918
  -3.54250  -2.56996  -0.01918
  -3.04243  -2.98036  -0.01918
  -0.56525  -3.47310  -0.01918
  -4.42904  -0.56395  -0.66298
  -4.29721  -1.20543  -0.66298
  -4.03895  -1.80723  -0.66298
  -3.66484  -2.34474  -0.66298
  -3.19019  -2.79593  -0.66298
  -2.63443  -3.14234  -0.66298
  -1.37298  -3.46895  -0.66298
  -0.71894  -3.43578  -0.66298
  -3.82144  -1.80833  -1.28204
  -3.42247  -2.33317  -1.28204
  -2.18203   2.32903  -1.85256
  -1.84048   0.85715  -3.06798
  -1.62104   3.07639   1.30777
   2.74639   2.40189   0.68871
   2.31981   2.89879   0.68871
   0.58002   3.75220   0.68871
  -0.07402   3.78537   0.68871
  -1.33547   3.45876   0.68871
  -1.89123   3.11235   0.68871
   2.83376   2.38631   0.04491
   2.42336   2.88638   0.04491
   0.73371   3.78952   0.04491
  -0.55389   3.78952   0.04491
  -1.74347   3.29678   0.04491
   2.74639   2.40189  -0.59889
   0.41181  -0.00462  -3.19168
   2.91013   0.39149   2.38176
   3.88936  -0.26249   1.42999
   3.80556   0.40086   1.42999
   3.80556  -0.92584   1.42999
   4.15125  -0.26249   0.84176
   3.51218   1.56387   0.84176
   4.28513  -0.26249   0.21194
   4.21351   0.39599   0.21194
   4.00202   1.02368   0.21194
   3.66053   1.59124   0.21194
   3.20503   2.07211   0.21194
   4.00202  -1.54866   0.21194
   4.21351  -0.92097   0.21194
   4.28513  -0.26249  -0.43196
   4.21351   0.39599  -0.43196
   4.00202   1.02368  -0.43196
   3.66053   1.59124  -0.43196
   3.20503   2.07211  -0.43196
   3.20503  -2.59709  -0.43196
   3.66053  -2.11622  -0.43196
   4.00202  -1.54866  -0.43196
   4.21351  -0.92097  -0.43196
   4.15125  -0.26249  -1.06178
   3.51218   1.56387  -1.06178
   0.57018  -3.11830  -1.06178
   1.22200  -3.19174  -1.06178
   3.51218  -2.08885  -1.06178
   3.88936  -0.26249  -1.65001
   3.80556   0.40086  -1.65001
   0.72219  -2.88260  -1.65001
   3.80556  -0.92584  -1.65001
   3.03238  -0.26249  -2.60178
   0.72657  -2.00376  -2.60178
   2.02896  -1.88307  -2.60178
   1.86237  -0.26249  -3.12270
   1.54218   0.29208  -3.12270
   0.90182  -0.81706  -3.12270
   1.54218  -0.81706  -3.12270
   1.22200  -0.26249  -3.19001
  -3.12238   1.82091   2.03814
  -3.55581   1.34547   2.03814
  -3.78822   0.74555   2.03814
  -3.78822   0.10219   2.03814
  -4.02489   1.36656   1.56176
  -4.21579   0.74769   1.56176
  -4.21579   0.10005   1.56176
  -2.06738   2.89231   0.99823
  -3.30160   2.56160   0.99823
  -4.20511   1.65809   0.99823
  -4.45171   1.06275   0.99823
  -4.53582   0.42387   0.99823
  -4.45171  -0.21501   0.99823
  -2.55846   2.99820   0.38029
  -3.18324   2.79520   0.38029
  -3.73791   2.44319   0.38029
  -4.18761   1.96431   0.38029
  -4.50409   1.38863   0.38029
  -4.66747   0.75234   0.38029
  -4.66747   0.09540   0.38029
  -4.50409  -0.54089   0.38029
  -2.55846   2.99820  -0.25615
  -3.18324   2.79520  -0.25615
  -3.73791   2.44319  -0.25615
  -4.18761   1.96431  -0.25615
  -4.50409   1.38863  -0.25615
  -4.66747   0.75234  -0.25615
  -4.66747   0.09540  -0.25615
  -4.50409  -0.54089  -0.25615
  -2.06738   2.89231  -0.87409
  -3.30160   2.56160  -0.87409
  -4.20511   1.65809  -0.87409
  -4.45171   1.06275  -0.87409
  -4.53582   0.42387  -0.87409
  -4.45171  -0.21501  -0.87409
  -4.02489   1.36656  -1.43762
  -4.21579   0.74769  -1.43762
  -4.21579   0.10005  -1.43762
  -3.12238   1.82091  -1.91400
  -3.55581   1.34547  -1.91400
  -3.78822   0.74555  -1.91400
  -1.26769  -0.95774   3.43247
  -0.63590  -0.95774   3.35576
  -0.95179  -0.41059   3.35576
  -1.58359  -0.41059   3.35576
  -1.89948  -0.95774   3.35576
  -1.58359  -1.50489   3.35576
  -0.95179  -1.50489   3.35576
  -2.98853  -0.63606   2.76854
  -2.98853  -1.27942   2.76854
  -2.75612  -1.87934   2.76854
  -2.32269  -2.35478   2.76854
  -1.10616  -2.70092   2.76854
  -0.48736  -2.52485   2.76854
   0.02605  -2.13714   2.76854
  -3.22520  -1.90043   2.29216
  -1.10533  -3.12434   2.29216
  -0.47392  -2.98023   2.29216
  -3.40542  -2.19196   1.72863
  -2.50191  -3.09547   1.72863
  -1.26769  -3.42618   1.72863
  -0.62881  -3.34207   1.72863
  -0.03347  -3.09547   1.72863
  -3.38792  -2.49818   1.11069
  -2.93822  -2.97706   1.11069
  -2.38355  -3.32907   1.11069
  -1.75877  -3.53207   1.11069
  -1.10313  -3.57332   1.11069
  -2.38355  -3.32907   0.47425
  -1.75877  -3.53207   0.47425
  -1.10313  -3.57332   0.47425
  -2.94690  -2.79734  -1.27450
  -2.39223  -3.14935  -1.27450
  -1.76745  -3.35235  -1.27450
  -1.11181  -3.39360  -1.27450
  -3.66070  -1.41690  -1.89244
  -3.41410  -2.01224  -1.89244
  -2.51059  -2.91575  -1.89244
  -1.27637  -3.24646  -1.89244
  -0.63749  -3.16235  -1.89244
  -0.04215  -2.91575  -1.89244
  -3.42478  -1.10184  -2.45597
  -3.23388  -1.72071  -2.45597
  -1.11401  -2.94462  -2.45597
  -0.48260  -2.80051  -2.45597
  -2.99721  -0.45634  -2.93235
  -2.99721  -1.09970  -2.93235
  -2.76480  -1.69962  -2.93235
  -2.33137  -2.17506  -2.93235
  -1.11484  -2.52120  -2.93235
  -0.49604  -2.34513  -2.93235
   0.01737  -1.95742  -2.93235
   0.35606  -1.41043  -2.93235
  -0.64458  -0.77802  -3.51957
  -0.96047  -0.23087  -3.51957
  -1.59227  -0.23087  -3.51957
  -1.90816  -0.77802  -3.51957
  -1.59227  -1.32517  -3.51957
  -0.96047  -1.32517  -3.51957
  -1.27637  -0.77802  -3.59628
   0.14555   1.11298   3.61665
   0.77734   1.11298   3.53994
   0.46145   1.66013   3.53994
  -0.17035   1.66013   3.53994
  -0.48624   1.11298   3.53994
  -0.17035   0.56583   3.53994
   0.46145   0.56583   3.53994
   1.89619   1.11298   2.95272
   1.77798   1.74539   2.95272
   1.43929   2.29238   2.95272
   0.92588   2.68009   2.95272
   0.30708   2.85616   2.95272
  -0.90945   2.51002   2.95272
  -1.34288   2.03458   2.95272
  -1.57529   1.43466   2.95272
   1.77798   0.48057   2.95272
   2.31823   1.11298   2.47634
   2.22170   1.75339   2.47634
   0.93932   3.13547   2.47634
   0.30791   3.27958   2.47634
  -1.81196   2.05567   2.47634
   1.37977   3.25071   1.91281
   0.78443   3.49731   1.91281
   0.14555   3.58142   1.91281
  -1.08867   3.25071   1.91281
  -1.99218   2.34720   1.91281
   0.31011   3.72856   1.29487
  -0.34553   3.68731   1.29487
  -0.97031   3.48431   1.29487
   0.29604   3.88601  -0.44581
  -0.35960   3.84476  -0.44581
  -0.98438   3.64176  -0.44581
   0.29604   3.88601  -1.08225
  -0.35960   3.84476  -1.08225
  -0.98438   3.64176  -1.08225
  -1.53905   3.28975  -1.08225
   1.36570   3.40816  -1.70019
   0.77036   3.65476  -1.70019
   0.13148   3.73887  -1.70019
  -1.10274   3.40816  -1.70019
   2.20763   1.91084  -2.26372
   0.92525   3.29292  -2.26372
   0.29384   3.43703  -2.26372
  -1.82603   2.21312  -2.26372
   1.76391   1.90284  -2.74010
   1.42522   2.44983  -2.74010
   0.91181   2.83754  -2.74010
   0.29301   3.01361  -2.74010
  -0.92352   2.66747  -2.74010
  -1.35695   2.19203  -2.74010
   0.76327   1.27043  -3.32732
   0.44738   1.81758  -3.32732
  -0.18442   1.81758  -3.32732
  -0.50031   1.27043  -3.32732
  -0.18442   0.72328  -3.32732
   0.44738   0.72328  -3.32732
   0.13148   1.27043  -3.40403
   1.27318  -0.87009   3.25476
   1.90497  -0.87009   3.17805
   1.58908  -0.32294   3.17805
   0.64139  -0.87009   3.17805
   0.95728  -1.41724   3.17805
   1.58908  -1.41724   3.17805
   3.02382  -0.87009   2.59083
   2.90561  -0.23768   2.59083
   1.43471  -2.61327   2.59083
   2.05351  -2.43720   2.59083
   2.56692  -2.04949   2.59083
   2.90561  -1.50250   2.59083
   3.44586  -0.87009   2.11445
   1.43554  -3.03669   2.11445
   2.06695  -2.89258   2.11445
   3.34933  -1.51050   2.11445
   1.27318  -3.33853   1.55092
   1.91206  -3.25442   1.55092
   2.50740  -3.00782   1.55092
   3.65751  -1.50897   1.55092
   0.78210  -3.44442   0.93298
   1.43774  -3.48567   0.93298
   0.78210  -3.44442   0.29654
   1.43774  -3.48567   0.29654
